ply
format ascii 1.0
element vertex 69
property float x
property float y
property float z
property uchar diffuse_red
property uchar diffuse_green
property uchar diffuse_blue
end_header

-1.76811 -24.8467 -38.5304 255 0 0 
10.128 79.3491 -33.2958 255 0 0 
14.7844 -54.996 9.41762 255 0 0 
-17.2336 44.6908 -65.7995 255 0 0 
-22.7512 11.6296 -82.0343 255 0 0 
1.03386 -37.4115 -13.9223 255 0 0 
-1.79693 13.5601 -86.6104 255 0 0 
10.5277 45.9107 -36.4302 255 0 0 
-5.70513 39.1266 -70.4001 255 0 0 
-12.4553 15.6865 -85.8028 255 0 0 
16.1003 47.9118 -5.98692 255 0 0 
-8.40816 -55.1724 13.3532 255 0 0 
14.9473 36.1405 -1.10817 255 0 0 
21.9802 20.9528 34.762 255 0 0 
13.2522 -26.1667 -20.4182 255 0 0 
0.941664 -46.5849 -3.03615 255 0 0 
24.5316 6.2849 50.3268 255 0 0 
-1.26534 27.1573 -75.1154 255 0 0 
2.90465 -53.8245 11.7764 255 0 0 
3.93087 5.88572 -77.1103 255 0 0 
11.1107 14.9713 -37.9128 255 0 0 
19.4981 -0.287831 29.3437 255 0 0 
21.4169 29.0058 26.4847 255 0 0 
-20.8364 81.1886 -33.2355 255 0 0 
6.64484 -7.36421 -49.8413 255 0 0 
-15.0389 29.3165 -75.0838 255 0 0 
1.63959 51.4148 -56.7562 255 0 0 
-0.0904317 78.7851 -35.677 255 0 0 
18.8786 -26.579 21.183 255 0 0 
16.3944 -46.4143 -1.50594 255 0 0 
-15.7457 -33.7587 -34.0308 255 0 0 
11.5685 36.8274 -32.6434 255 0 0 
20.6656 -8.5457 38.2153 255 0 0 
-9.49059 79.1248 -34.6984 255 0 0 
-10.8513 5.00335 -79.7925 255 0 0 
16.0153 -35.8633 -16.7415 255 0 0 
-24.7638 24.031 -74.149 255 0 0 
-26.2411 -17.5342 -37.3502 255 0 0 
-12.1782 -21.3319 -40.0421 255 0 0 
9.20567 59.9351 -45.6418 255 0 0 
-18.267 66.2719 -44.5637 255 0 0 
-24.1709 58.6725 -69.7602 255 0 0 
-22.9249 -72.4419 -32.8725 255 0 0 
-11.742 -75.2966 25.0614 255 0 0 
-32.9605 12.0094 -75.8511 255 0 0 
-24.8377 0.839807 -64.1602 255 0 0 
24.8995 -50.6688 236.952 255 0 0 
-6.88842 -38.6148 -23.2168 255 0 0 
-14.0299 -91.1152 8.11889 255 0 0 
12.3511 24.3457 -41.2147 255 0 0 
-27.8209 -39.3067 -55.5557 255 0 0 
-35.6087 70.2364 -80.4127 255 0 0 
-30.8529 53.7312 -92.2103 255 0 0 
18.9629 21.9037 205.372 255 0 0 
12.8312 -12.5307 151.49 255 0 0 
19.671 -3.32945 -22.2961 255 0 0 
22.6596 -63.5364 229.559 255 0 0 
-32.1333 28.149 -103.793 255 0 0 
26.3424 -42.087 231.545 255 0 0 
-26.5013 37.0597 -70.064 255 0 0 
-27.1788 -81.2434 -59.911 255 0 0 
33.7789 6.26148 270.783 255 0 0 
-31.5195 -76.8185 -105.966 255 0 0 
26.7539 -9.43887 230.736 255 0 0 
32.7773 29.8336 275.226 255 0 0 
-22.1173 -72.9974 -73.4968 255 0 0 
-0.814651 -85.6102 84.3564 255 0 0 
-31.7713 20.6731 -94.6229 255 0 0 
39.4321 70.6581 318.75 255 0 0 
