ply
format ascii 1.0
element vertex 61
property float x
property float y
property float z
property uchar diffuse_red
property uchar diffuse_green
property uchar diffuse_blue
end_header

3.32507 -168.606 -127.442 255 0 0 
-141.546 -105.91 22.506 255 0 0 
-174.802 79.4178 -87.32 255 0 0 
-16.0944 175.031 28.7573 255 0 0 
16.9375 -10.9473 137.734 255 0 0 
162.334 -73.9877 -11.423 255 0 0 
130.51 112.515 -120.896 255 0 0 
-105.321 -121.501 -14.848 255 0 0 
-69.0907 -137.259 -52.468 255 0 0 
-32.944 -152.95 -89.7652 255 0 0 
-166.596 33.0748 -59.8007 255 0 0 
-158.239 -13.4682 -32.423 255 0 0 
-149.81 -59.4887 -5.00424 255 0 0 
-55.8097 151.08 -0.559904 255 0 0 
-95.4844 127.11 -29.3384 255 0 0 
-135.225 103.244 -58.2827 255 0 0 
8.72591 35.6318 110.489 255 0 0 
0.365656 82.182 83.0066 255 0 0 
-7.75743 128.62 55.5769 255 0 0 
125.857 -58.1702 25.4703 255 0 0 
89.56 -42.4711 62.9811 255 0 0 
53.3589 -26.701 100.213 255 0 0 
138.515 65.9262 -93.5074 255 0 0 
146.469 19.3087 -66.058 255 0 0 
154.31 -27.318 -38.9919 255 0 0 
122.68 -97.6117 -40.1279 255 0 0 
82.901 -121.251 -69.3798 255 0 0 
43.1277 -145.144 -98.417 255 0 0 
-22.7203 -34.634 108.88 255 0 0 
-62.3125 -58.3884 79.9963 255 0 0 
-102.046 -82.2003 51.1686 255 0 0 
93.7793 128.162 -83.2311 255 0 0 
57.0971 143.903 -46.253 255 0 0 
20.6027 159.46 -8.96373 255 0 0 
13.652 -50.3244 71.6332 255 0 0 
-26.0016 -74.1313 42.7135 255 0 0 
-65.7462 -97.9143 13.822 255 0 0 
49.9926 -66.2057 34.2648 255 0 0 
10.0809 -89.8284 5.35824 255 0 0 
-29.4699 -113.7 -23.4601 255 0 0 
86.2605 -81.9646 -3.03356 255 0 0 
46.5943 -105.654 -32.177 255 0 0 
6.71833 -129.255 -61.3058 255 0 0 
-47.3998 104.669 26.822 255 0 0 
-87.1974 80.7814 -1.80027 255 0 0 
-126.843 56.9912 -31.1203 255 0 0 
-39.1986 58.217 53.842 255 0 0 
-78.7961 34.2873 25.5809 255 0 0 
-118.442 10.495 -3.77753 255 0 0 
-30.8286 11.7591 81.7337 255 0 0 
-70.5464 -12.0059 52.6484 255 0 0 
-110.302 -35.7475 24.1159 255 0 0 
28.7672 112.99 18.6584 255 0 0 
65.2716 97.4209 -18.7436 255 0 0 
101.93 81.52 -55.9998 255 0 0 
36.8366 66.4538 45.3871 255 0 0 
73.3853 50.6855 8.32534 255 0 0 
109.842 34.9549 -28.4118 255 0 0 
45.0644 19.8768 73.2746 255 0 0 
81.5674 4.19505 35.7668 255 0 0 
118.1 -11.447 -1.49182 255 0 0 
